# 3D point list with one line of data per point:
#   POINT3D_ID, X, Y, Z, R, G, B, ERROR, TRACK[] as (IMAGE_ID, POINT2D_IDX)
# Number of points: 292, mean track length: 9.0837042450009964
4715 0.01858681092812324 1.7182643911003539 0.080685908298272935 85 29 14 0.79393684130850994 43 1740 32 1917
19976 0.22317991431140705 2.0941861685962837 0.57038845697493801 141 196 193 2.0872476730502973 98 339 136 360 140 350 120 434 112 369 141 330
19967 0.53474296363089002 2.2308156971888451 0.29538022802939068 128 133 127 0.93913770410392294 125 563 138 312 136 302 143 496 140 520 134 291
19965 0.318599065827054 1.9983501414047697 0.43579328063647571 253 187 113 0.8649024356889734 138 303 136 297 147 320 143 275 148 334 113 252 137 319 144 338 112 297 133 277
19958 0.53629447046338996 1.9205212439201378 0.24706527016921548 255 223 155 0.14375837158787816 138 223 136 223 147 250 140 213 134 216 112 215 141 200 133 199
19935 0.49214817242588899 1.6251690540671806 0.16635097042673369 161 102 72 1.669269094460202 105 64 136 55 134 37 135 76 120 97 137 61 107 97 127 151 127 152 123 195 122 614 145 892 132 131 126 841 150 1313 128 803 112 31
19932 0.47845952171318762 1.6179720452187576 0.1317192637047247 129 78 54 0.98873105353441737 109 48 136 43 147 33 143 31 148 42 140 36 113 20 144 57 129 92 121 76 106 79 119 79 142 75 107 75 127 639 123 818 122 603 145 1178 132 917 128 1358 130 1011 146 1076 149 903 116 34
19921 0.46371335742110253 0.8191392092616796 0.8507757274669655 0 0 0 1.0725303902936323 105 51 109 377
19920 0.31350177809156121 2.1654938761026195 0.28729721817076403 148 82 16 1.7993150113324905 136 283 129 810 106 361 119 637 125 330 117 828 122 749 141 452
19917 0.24642081481246594 1.4655873091225284 -0.10601566084308289 208 190 176 0.65303826335342752 62 1 92 407 76 1
19916 0.050152307013605582 1.6235138649061722 0.20612930876935731 208 198 174 0.80050755459978584 99 665 101 643 111 671 114 588 115 613 72 607 98 625 104 635 108 628 103 504
19898 0.4827871948935375 1.6189993450505964 0.15267993975568298 118 63 33 0.56704253647604164 105 802 138 803 148 948 113 905 118 867 137 871 144 908 135 932 120 963 117 961 129 1014 121 1043 106 974 119 978 142 1071
19894 0.52588186973242446 2.1327538186936956 0.35684697589264619 161 142 124 1.2485847043299607 105 748 138 765 147 710 140 518 112 583 141 605 143 283
19884 0.11065493886759112 1.8469508239504493 0.31683809707800764 149 140 135 1.37920883016869 105 784 138 728 147 753 125 779 136 743 140 667 140 742 134 625 134 666 141 206
19883 0.49860350765202793 1.888189697913391 0.25501839576944757 119 70 49 0.73568196068387703 125 729 139 424 140 663 143 664 147 670 138 727 136 691 112 625 133 525 141 588 116 529 103 249
19872 0.53470571093223562 1.935673858112386 0.22021069651196146 255 220 160 0.70506566273504512 125 537 138 628 136 481 134 444 144 570 135 577 133 433
25358 0.58880374205331731 2.0213839028393377 0.25244670915453116 189 121 58 0.39675461970650555 146 691 149 594
4605 0.41100905986281011 1.8865860116511579 0.093411457210946416 171 101 86 1.5475585425970169 41 441 12 451 20 470 47 1346 43 478 37 1305 51 1138 47 1345 43 1204 42 469 28 299 32 495 16 1386 50 1339 29 432 44 355 46 453 3 1482 38 271
19866 0.41789694449305886 1.5355610818481893 0.33195491823421064 141 90 47 1.0718994181681185 105 463 138 601 136 569 134 80 113 618 118 605 137 475 135 675 120 805 129 586 117 137 121 593 106 140 119 558 142 565 133 400
19855 0.5916824523236337 2.2238760613475232 0.36466211051833913 110 140 134 0.82025427475112089 105 575 138 540 136 315 147 348 143 305 140 301 134 303 112 316 133 293 109 289 116 281
19852 0.4902525154440141 2.0033899933491646 0.37442833395363362 206 129 61 1.3399661316226528 105 303 138 523 134 268 118 505 144 322 135 346 148 320 140 508
19848 0.55701369784149368 1.9608317304882925 0.22512904610697979 161 102 63 1.2928969156295798 105 539 138 508 136 485 147 256 143 579 140 493 143 472 118 198 135 302 120 599 117 315 117 644 129 670 106 327 119 326 112 220
19847 0.49164448955143925 1.9004183180016916 0.20068921400215478 154 111 107 1.408080513146611 105 522 125 525 138 495 136 471 147 498 143 182 125 227 140 469 113 650 118 626 144 560 107 921 127 1066 122 1100 123 1237 145 1481 132 1221 123 1182 112 176 141 167
19846 0.19783800843536287 1.6423404295543929 0.40643332461833276 115 68 38 0.10979166148514469 105 520 138 492 147 496
24931 0.45566722323496134 1.8778000603020064 0.13965831675767815 125 72 56 0.60046300809357367 126 253 150 411 128 896
14658 0.16681738215298428 1.8132968142973831 0.35870664377397599 70 0 1 0.47471306083713349 73 607 74 606 75 585 86 623 102 591
4385 0.25434649409299481 2.3181840447410678 0.11349780493617238 139 188 182 0.31666527292006513 53 1044 30 935 20 1498
19844 0.37019858553398777 1.6209658124590101 0.38864706198751142 141 75 43 0.72572106390051305 105 507 125 205 138 479 136 163 143 152 135 213 120 219 112 154
19839 0.39157214445087235 1.5278742340813469 0.35980385989556285 255 221 161 0.92964064721544637 105 468 138 454 113 621 118 409 144 520 106 152 119 142
4576 0.48357767882004965 1.9673397904759828 0.13710956039078068 227 162 150 1.5301498470257402 43 1773 28 1639 2 1339 36 1337 8 1377 14 1382 35 1336 33 1173 9 387
19837 0.24775091591616535 1.6042154271354598 0.21647136718367482 221 157 95 1.2341191697999228 105 81 138 441 136 81 143 63 125 479 134 66 118 48 113 28
19834 0.49868815678456585 1.629018969815099 0.15552791880819161 150 96 62 0.9464989723145022 105 59 138 433 143 44 148 503 113 410 118 585 137 455 144 76 135 504 120 93 117 106 129 566 121 773 106 537 106 732 119 547 119 548 106 536 129 565 121 98 142 548 142 549 107 567 107 568 144 80 122 132 144 81
25319 0.34996044958911793 1.9254425745100465 0.066071500015457876 138 67 65 0.4426487783120886 131 461 149 406 130 441 124 196
4566 0.19055837942001788 1.5321479363454997 -0.013981766767854438 255 217 166 1.4379044582458884 43 1707 28 1414 20 1995 47 1967 44 961 3 43 32 72 7 67 16 1238 31 49 46 55 50 73 2 1249
19827 0.1160454222393473 2.1451896702399873 0.5582791381469332 82 129 131 0.60957315076933316 93 326 138 368
25318 0.34988306813474462 1.7830455776001846 0.39606763551087071 102 65 55 0.31613865383373135 128 1209 146 461 149 403
4565 0.38234040000003588 1.3074346716035519 0.84950457606538676 0 0 0 2.4439304641888899 43 23 52 28
19826 0.26487381725219333 2.1443008633353262 0.53406192225375149 211 255 254 1.2052677856732517 105 600 125 418 138 365 136 359 125 421 147 399 143 348 140 548 134 347 134 509 141 327 141 491 133 337 116 325
19814 0.58574467066089753 2.2909541647825988 0.30638620133834793 96 126 124 0.68989390599315703 105 346 138 326 140 300 113 777
19798 0.58785513183769322 2.1093030873310754 0.21140558613763444 118 48 62 0.51202702325061789 105 293 138 265 134 463 141 229
24883 0.56366099914871404 2.0889024735544846 0.28526522386894637 121 80 53 1.354391472456673 126 717 150 617 128 553 130 700 149 636
4337 0.3128317319642625 2.1167573565183777 0.061011705208702367 206 139 87 2.3379116828510451 51 643 20 761 47 798 43 740 40 727 42 801 20 754 51 640 47 794 37 781 48 754 49 718 45 816 52 671 34 729 53 774 12 741 51 631 20 751 47 781 43 721 37 774 39 764 42 781 48 744 43 727 30 690 30 704 28 512 28 1023 32 790 16 782 50 765 50 782 29 729 29 740 44 609 44 618 44 1249 7 694 7 711 31 743 31 757 3 652 2 425
14610 0.19746400486105112 2.1049599622060207 0.30780219909237122 202 138 74 2.3664494168347256 82 272 88 287 79 285 74 493 75 282 83 304
19796 0.60700145835682295 2.0796171790306661 0.22415209165983355 124 47 65 0.83628821982928514 105 290 138 263 134 246 133 231
24878 0.37644225759523536 2.2641456609733202 0.15244136074641973 113 114 98 0.55468822285356634 131 740 128 537 146 1570 149 1377 110 1019 130 724
4332 0.29931336882727527 1.4935553587143588 -0.076221269485290302 119 63 18 1.4706907063553987 34 1579 20 1755 49 1050 45 1164 52 1487 34 1090 41 1522 28 1571 44 1909 7 1783 3 1756 2 1402 36 21 8 12
19791 0.3445561103503581 1.7471016617335531 0.40833102792839371 139 82 52 0.82538490091858874 99 214 108 211 76 189 143 220 140 225 112 233
19776 0.50687530935134073 1.7059915790277258 0.27736983921294694 186 120 85 1.0479736614612902 99 121 101 109 125 177 138 141 136 147 148 175 113 99 144 191 120 217 121 236
19775 0.41578853606708827 1.6010546887222445 0.35937251125310299 167 107 71 0.77039265078732411 125 173 138 139 148 161
4513 0.30491992601786483 2.2779144991476903 0.11052486373548487 152 131 102 0.61434004867985126 43 911 28 646 44 797 29 941 7 1379 2 533
4306 0.43117541035055312 1.4475082279672458 0.13945579418383353 179 152 129 1.9319624456410618 20 29 37 24 48 27 42 29 49 1049 41 25 47 40 20 28 37 1139 40 25 42 30 48 29 48 31 49 1051 30 1408 41 27 40 26 51 28 52 29 41 23
25059 0.5095890097078678 2.2791399432266655 0.15760108788805077 108 123 118 1.675347759325243 107 681 128 593 122 445 123 976 145 646 132 799 150 670 150 673 131 833 131 835 126 730 127 480
19774 0.4152981740648195 1.6029184903583686 0.35970961102095445 167 107 71 0.81008779297882938 138 138 148 160 113 464 125 174 135 186 120 192 129 208
19771 0.42640347851542859 1.5932216978329197 0.3377200691972605 165 106 72 0.85595334175626159 105 157 138 121 140 118 76 84 144 155 148 138 135 539 118 424 107 156 127 222 122 176 123 252 145 915 132 663 131 307 150 981
19756 0.51187015898793864 1.6620281250394093 0.18156983039878241 159 104 74 1.1670516917901603 105 94 138 71 140 68 134 63 118 54 148 526 137 466 144 102 120 130 144 111 112 57 116 57
4493 0.27361751441813859 2.0762851760301149 0.19612135121495231 255 192 118 0.80830267903215258 43 663 28 456
19754 0.28723759736398691 1.6178071385399266 0.20519936200681321 214 130 57 1.5277567722085863 105 83 140 419 138 67 136 413 143 411 147 80
4492 0.35598643147512687 2.0694656405768552 0.10082817221581275 217 136 70 0.48137191547756858 20 1386 43 1613 28 454 44 553
19753 0.19942748039443148 1.640956753685316 0.16979581289889789 233 161 89 2.2720530578983 91 376 138 57 134 386 103 207 148 53
4490 0.31537158485878841 2.0299467079813747 0.20216111586808772 225 154 99 2.0102607154967451 51 548 28 433
19751 0.46316760305148158 1.5515861102967701 0.1706647959302614 150 96 72 0.991007823898157 109 42 138 33 136 39 147 31 143 29 148 484 113 396 118 580 144 49 144 481 135 492 120 527 117 542 129 553 129 556 121 565 106 69 106 526 119 540 142 532 123 135 145 140 132 80 150 137 131 1074 126 87 128 767 110 131 116 28
24837 0.42690956192026275 1.7627045407466826 0.040318913699043918 129 94 85 0.13352940245883682 131 1132 128 214
25044 0.6193636418054137 2.1193213642789579 0.22649462616379998 0 0 0 2.2445893419052609 131 1987 150 1864
4291 0.25368326953993231 1.5038482564125728 -0.088125716154066641 122 62 8 0.96158362036376821 12 1850 41 1993 49 1861 37 1941
19750 0.46392261598430162 1.5600269875676265 0.16445298467405192 105 53 29 1.0544188163829986 105 48 138 32 136 41 148 486 140 34 134 27 113 397 118 34 137 446 144 482 135 493 120 695 117 729 129 763 121 769 106 726 119 69 142 860 107 738 107 843 127 90 127 978 122 593 122 1006 123 1055 123 1159 145 1457 132 907 150 1626 131 1785 126 1122 128 1485 124 993 110 1526
25241 0.29613185004065135 1.3830000264437665 0.0022017409070786745 210 192 178 2.2786882713076908 131 977 149 8
4488 0.14285929026645064 2.0272869812951586 0.124539080917328 0 0 0 0.083258697420762209 34 632 51 542
19749 0.49783737951128376 1.6882708101577699 0.046054954527838102 106 80 71 1.5044620387457852 104 26 138 31 115 20 136 40 147 29 135 44 105 49
19747 0.44425587955621026 1.496117178863962 0.19846497582438941 161 113 74 1.641566780386895 105 44 138 28 136 37 147 27 140 30 125 38 120 520 117 728 142 744 136 35 141 36
24833 0.48969110467420418 1.6088918818490585 0.1570351169803049 200 141 122 0.77662143314909871 122 119 131 232 128 173 149 188 110 178 124 425
25040 0.35173533261445666 1.6935992934467317 -0.033659760649706015 200 141 126 1.1410537282867323 131 2006 128 1717 146 1992 149 1840 110 1770 130 2021 124 1262
4287 0.53605868086097952 2.3201934824673893 0.27370433353767754 145 190 182 1.7156935158591604 41 1895 44 868 29 1595 32 1126 46 1019 38 1315 36 1385
14560 0.33337250126612217 1.3777108853490396 0.059162724655465258 109 82 52 2.8890973160098929 74 8 75 10
19746 0.46912368434369839 1.6045199082488353 0.074357433515277502 95 68 61 0.64281723500000931 105 40 138 23 143 609 141 28
4484 0.82003647390125056 1.854149526328458 1.2263633164707968 157 159 156 0.73540352720055335 41 470 28 363 32 615
4277 0.4327437746243592 2.2630744637222548 0.16986440600036651 152 163 147 0.48984402308199992 48 901 49 1409 36 559 14 668
25030 0.26573322794054116 1.522678590608157 0.090670237457309982 155 90 32 1.9930288307953703 131 1854 128 1622
19745 0.45027700578699281 1.5916413998386261 0.064199900737553009 90 68 63 1.9107539659105206 105 30 138 16 140 22 134 17 98 10 141 22 116 19
24831 0.33117331481068868 1.7588048056494272 -0.0051263944522561607 151 107 96 2.1280454290797843 131 202 128 163 110 810 124 656
4285 0.12392668298078309 1.9547992401715319 0.01128445354185563 133 79 32 0.1590513798894414 40 1991 49 1593
19744 0.42263154670366382 1.5737208568294137 0.012946365016127486 116 91 84 1.285857461752594 125 669 136 713 105 759 147 689 143 608 143 704 138 773 134 570 135 474 141 564 112 8 116 11 109 25
19742 0.56314026941171891 2.1561603466000445 0.24380694778157128 42 44 39 2.4529436160488327 134 689 109 651 72 430 139 620 125 800 112 712
24828 1.0039409553659351 1.3488366468866986 0.11050797743047906 135 98 55 2.3308926859486174 122 63 128 150
25035 0.34946705087444335 1.8743510029895167 0.013744052141805749 142 104 97 0.055354761195489363 131 1932 128 1682
4282 0.42966929634991652 1.4877903451728074 0.068138804121306976 199 188 178 1.8560185477369922 51 38 14 842 38 1590 8 16 35 827 33 17 26 19
19741 0.34069560946336025 1.6462027580233898 0.41613074098642361 151 92 60 1.2106591956033288 109 197 125 240 147 221 143 183
19740 0.36397562564245789 1.5743486282650512 0.33318236477049057 75 49 17 2.4506399341922158 99 112 104 85 105 140 138 112 143 109 113 62 136 121 125 145 118 83 112 93 112 108 103 26
19738 0.35683341612420894 1.5857599608899442 0.38737703673875207 62 38 24 1.6923298660190598 72 99 111 135 104 339 109 137 105 499 125 506 125 508 105 182 109 132 138 146 138 477 136 152 147 164 147 165 143 141 143 447 148 167 148 158 140 138 140 586 134 132 113 466 118 437 118 440 137 161 144 175 144 179 144 541 148 165 135 546 135 181 120 190 120 185 117 196 129 618 121 615 106 581 119 579 142 777 107 597 117 183 114 93 117 189 127 686 137 501 120 187 112 561 141 134 141 528 133 126 116 130
19737 0.23531274309398989 1.6284718168322367 0.15388129219320362 255 220 196 2.22849325970025 76 374 109 382 125 465 100 38 80 32 93 38 147 440
14647 0.10881042542731323 2.1393123257766504 0.35187265289090058 146 127 95 0.093654980833984852 55 275 75 520
4374 0.23135669502420789 2.1326754983273939 0.10359282233443813 204 127 64 2.089246097649029 20 769 34 755 41 736 30 713 28 519 32 818 29 753 46 718 7 709 7 720 31 771 3 678 2 432 2 441 51 1264
4167 0.091943764848074955 1.6725331446956646 0.0072229629734532775 199 117 84 1.4182141462910971 45 212 12 222 20 222 47 227 40 199 48 216 52 171 53 207 12 225 51 177 47 229 43 221 39 208 40 205 42 208 30 197 28 842 29 1203 44 1032 2 1067 36 105
24920 0.48775472685186466 1.6706661255186797 0.2695433219319176 114 57 30 0.13021504275194085 131 1508 128 844
19734 0.11841985784246832 2.106174390338782 0.50030786673045979 175 208 199 0.73534748497785163 105 811 125 805 138 817 136 771 147 779 143 737 148 917 140 766 134 693 113 870 118 823 137 855 135 872 144 869 112 714 133 675 116 682
19729 0.1934244985847059 2.0067632383557519 0.4357264333879648 197 129 58 0.41937943501435204 105 797 125 791 136 757 147 766 143 727 140 744 134 681 112 707 141 672
25219 0.37634385626982525 1.7848544793166876 0.027973887088905001 116 9 33 0.50232735772502435 128 1722 146 1996 149 1845 110 1774 130 2025 124 1232
4466 0.16692769735560622 1.605310663763968 -0.07611469874194475 188 126 79 0.3324200696141334 43 141 28 94 31 125 32 153
4259 0.56796109997564082 2.3396971616447217 0.27116584634282459 90 140 140 1.5105035185241906 12 1036 43 1438 44 1900 49 987 34 996
25012 0.25489445476219075 2.1905065200806444 0.087405017385875819 245 213 172 0.75308567152674699 126 1162 128 1525
24814 0.2148548759936296 1.6565045911229177 -0.066271143549980399 144 129 122 0.99967357508615273 123 42 128 71
25021 0.34358631529011457 1.7231345323199159 -0.037192034340928951 152 105 89 0.88363228539314997 131 1645 150 1495 128 1576
4268 0.31816614334132615 2.0090306055012279 0.15314696164107092 215 133 71 1.0879659060379938 20 631 39 643 45 678 51 1198 49 1302 43 1269 47 1720 30 569
14541 0.40362404663170287 1.989365869246871 0.43219067876564382 0 0 0 0.21543415720396156 55 784 78 820
19727 0.5428631715498653 2.0221072407075624 0.35192701471922028 161 96 35 1.160065953002803 105 795 125 789 138 812 136 755 147 764 143 725 140 754 113 909 118 874 139 603 133 626 116 633
24812 0.2621550304704815 1.5292622901807844 0.1051144697596855 253 198 143 1.80181528256728 131 73 150 59 128 64
4266 0.33966651187966906 1.708596903915431 -0.037199822194358557 215 150 132 0.24467623159862342 45 1638 52 1104 49 1168
19725 0.47993551931920714 1.6572373504612607 0.288056305367281 156 94 60 0.56767499573833913 105 782 125 774 138 782 147 750 143 710 140 724 134 646 113 864 118 813 137 835 144 861 135 886 120 916 112 669 141 644 133 622 116 629
19720 0.17101832256510671 2.1137701873913257 0.51231535425841401 180 214 207 0.47305548327792213 105 734 125 747 147 718 143 680 134 635 133 608 116 621
25211 0.28808673574214327 1.9824592677412884 0.047512824718783042 102 6 20 0.94127375618748166 128 1650 146 1929 124 1196
4458 0.19310490151313756 1.4283620418228209 -0.03509857591748089 202 191 175 1.9670623223255472 28 4 29 2 31 2 7 5 12 5 48 4 50 3 2 6 32 7 34 7 43 8 44 1436 51 909 16 4 48 3 53 10 16 6 36 1243 42 8 37 7 45 7
4251 0.42709763342568219 2.085181958953759 0.18409093709223631 167 95 34 0.53650286738105879 48 687 52 621 53 712 49 669
25004 0.38864986563890996 2.2603144524286964 0.15563263246627432 63 65 52 0.20118931335658427 131 1325 128 1435 146 1832 149 1664 110 1587 130 1838
19719 0.46107180720723867 2.1411465596227797 0.45819102198449835 158 182 169 0.98456221589029602 105 754 125 746 138 747 148 874 140 690 134 605 118 779 137 802 144 839 135 854 120 877 106 890 119 893 142 1006 141 555
19714 0.1316091704651059 1.7832961666546634 0.34130699122099356 131 88 73 1.287511639378204 105 710 125 730 138 626 136 692 147 702 143 629 140 666 134 588 113 883 148 925 118 839 137 848 144 862 141 590
19713 0.50070003680082631 1.8835238604186813 0.25954180425667472 113 65 38 1.0229360538566468 109 633 125 728 138 726 136 690 147 669 143 663 140 662 112 624 141 587 116 528 103 248
24799 0.32333719681915019 1.9320910933220445 0.45642770319337339 131 99 76 0.71360189153238562 126 904 128 459
25006 0.4941926240643732 2.2164654344729673 0.3437223583547579 181 186 180 0.64314455386972247 131 1759 150 1437 128 1457 126 744
4253 0.41918275591385318 2.159816792774746 0.10986196770735662 255 237 173 1.9430826929207961 39 812 51 673 52 722 49 760 42 1405 49 764 51 678 30 738 34 789 38 538 36 920
14526 0.049896546460437848 2.2683304280223062 0.27734944287985641 85 141 142 0.68581814430654486 55 742 73 805 75 754 86 804 102 749 100 701
19712 0.544665215311956 1.9419630591663708 0.21032921332181428 114 60 28 1.4147006036600576 105 743 125 726 138 724 136 688 147 700 143 661 140 660 134 623 118 760 137 786 144 826 135 841 120 895 117 869 129 954 121 971 106 910 119 911 142 992 107 925 127 1071 141 585 133 598 116 613
19711 0.53061092343999239 1.7658077334421209 0.17429156282950387 126 95 85 1.7353814499392231 105 141 109 94 98 398 136 125 147 129 125 725 136 687 134 583 143 108 140 654 76 388 133 515 116 574
19707 0.37139292087751191 2.018619505781988 0.41241508427536311 254 183 109 1.0610576382622821 105 727 125 705 138 641 136 663 147 678 143 645 140 678 134 595 121 822 129 689 112 630 141 602
25195 0.36390278005497734 1.9002347030252735 0.080803476543218289 0 0 0 2.4833770963732813 126 1035 149 1506 150 1351 128 1390
4442 0.10696355340121295 1.8809625098356522 0.078714973768573948 164 92 60 2.1627148939093024 34 453 12 448 41 433 52 381 20 458 47 456 37 460 39 464 40 424 42 461 42 465 48 1239 49 423 30 393 45 486 52 1200 34 1302 41 427 53 465 12 1274 51 1134 20 1289 47 1341 43 461 40 422 37 1300 28 287 38 272 38 861
24790 0.28567832603064675 2.2559014570012077 0.070199929727579366 93 85 78 1.6385418369564841 122 727 132 996 131 1285 126 1057 128 1425 149 1087 130 1534
19703 0.43630578522037283 1.5530012505243338 0.30630458970787106 155 92 61 0.58250497125106471 105 700 125 677 138 677 136 684 147 696 143 619 134 578 113 739 118 748 135 775 120 804 117 806 112 612 141 576 133 561
24781 0.51475318762352174 1.7591801851884508 0.074272600560181201 102 50 52 1.6728724856222437 126 1425 131 2075 150 1912 146 2058 149 1905 110 1823 124 1293 130 2081
24988 0.39512729084117881 2.3878162065917903 0.12516719522753805 97 149 145 0.19209969934514234 131 1583 150 1430 128 1287 146 1594 149 1573 110 1330 124 778 124 951
4235 0.43071819120168481 1.8822846731121252 0.11838223915186649 153 79 66 0.93944953843296364 43 472 28 931 32 1431 16 1387 50 1679 29 1321 44 351 46 1305 7 426 31 465 3 406 2 783 130 1109 49 425
14508 0.14338329891611382 2.2868142666620757 0.19831637730076063 38 47 46 0.63242411366703055 55 465 73 634 75 511 86 524
19694 0.53996606535421499 2.196678310915305 0.33021096093117913 180 183 174 0.89586620728865562 105 670 125 646 138 703 136 608 147 633 143 591 148 869 140 707 143 647 125 708 134 597 113 825 118 775 137 799 144 834 135 850 120 902 117 909 129 958 121 978 106 916 119 919 142 1002 112 653 141 607 133 604 116 545
24780 0.55102422878788426 2.2770064537817718 0.32342096284904415 96 103 99 1.4520185632527651 132 516 131 935 126 460 131 933 150 771 124 357
19693 0.42737289444566967 1.9511926820875583 0.27726672625635423 255 204 124 0.90307896587855385 105 277 125 638 138 517 136 601 147 624 143 584 140 605 134 457 112 242 141 218
19688 0.47718631156177777 1.5321854429483248 0.30909852940378202 179 104 65 0.24702147919667419 105 457 125 611 143 548
19684 0.27573928884644322 2.0851260242276255 0.57336842200915417 208 251 248 2.2129928059415143 105 598 125 585 138 563 147 397 143 523 140 546 134 344 148 832 118 732 144 801 112 364 141 323 137 766 113 787
19682 0.54265828257382409 2.1734757371506443 0.37845492551639082 208 228 216 0.92666589456554571 105 571 125 566 136 515 147 342 125 362 143 297 143 500 148 369 140 522 134 483 113 536 137 351 144 370 120 403 117 685 129 702 121 715 106 668 119 652 142 684 112 312 133 469
4420 0.53857866850864577 1.9937899753396862 0.13548352260419327 144 88 75 1.5462167753879186 45 660 41 1288 20 616 39 626 40 585 42 625 52 1870 48 598 49 566 30 551 12 601 42 624 45 2047 52 2090 34 2075 41 2037 53 2037 37 2060 40 1997 42 1944 49 1980 30 1809 30 1810 16 1954 32 1956 29 1980 44 1821 7 1731 38 1547 38 1548 36 1448 14 1388 8 1379 35 1339 9 392
4213 0.13668398809522811 2.3571506099681478 0.20776106827233562 85 104 105 1.1192280507365691 45 1917 52 1939 34 1790 41 1901 53 1902 12 1482 51 1885 47 1947 43 1684 37 1541 39 1866 40 1864 42 1822 48 1683 41 1748 49 1935 30 1605 30 1748 28 1559 16 2176 29 2238 44 1897 31 2084 3 1973 16 2242 29 2308 2 1394 38 1488 36 1239
24966 0.57232320604990516 2.3286206754067549 0.35628512231010762 76 117 119 0.96059643597296451 131 967 146 918 149 1187
24768 0.41534398476420237 1.7116001852344074 0.13967996990767498 206 157 153 0.78143414055430915 131 2059 126 1413 128 1751
19681 0.55294829902066889 2.2266797028138607 0.32949964229162704 101 114 107 1.3095306218572487 105 671 125 565 138 644 136 307 147 338 143 498 148 871 140 295 134 293 113 854 118 777 137 819 144 837 135 874 120 904 129 960 121 997 129 977 106 917 119 935 112 308 133 285
25172 0.54586921827364643 2.2118930975745128 0.23863293395967161 220 232 230 0.84351134676422501 131 1586 150 1178 146 1310 110 1032
4419 0.4163103660764092 1.9105421766228032 0.13987340240208318 104 3 12 1.696600610245997 34 486 20 501 43 498 40 480 30 446 34 1992 53 1839 43 1876 39 1796 40 1788 49 1769 16 1403 50 1356 44 381 31 1305 3 443 2 269
24965 0.41986973532791338 2.3866266502456552 0.394720212475416 0 0 0 0.36732038487254914 131 960 150 1236
19680 0.13724131913198873 2.0348115786231551 0.35291502277434073 184 131 82 1.9126361394428724 105 305 125 558 138 273 140 272 133 253
25168 0.28858171214547024 2.2496369341033953 0.099406438331979874 216 188 141 0.87873663197350216 126 332 146 1255 149 595 110 978
4415 0.15401629108824014 1.904769663938112 0.023393824347380264 212 137 119 1.3051922737793442 34 471 52 409 20 484 47 496 37 479 40 457 48 468 49 441 30 419 51 399 47 488 31 447 29 1318 32 478 50 1335 7 411 32 481 3 394 38 293 52 408 36 272 14 379 8 377 33 367 9 57 9 58
24961 0.54558025595538517 2.3244359221062001 0.2153636259730794 111 172 167 0.36043863339744453 131 1609 150 745 128 1063
19676 0.55405228699418063 1.9310814406230019 0.20497498179675874 185 133 116 0.86466636656443507 105 236 125 532 138 502 136 203 147 232 143 201 140 193 118 467 113 166 144 258 135 277 120 286 142 283 107 778 127 403 112 193 141 419 133 175 116 164
25152 0.22905470247504378 1.7900999531956439 -0.072883711460365819 131 109 104 2.5434485323510483 150 129 146 1065
4399 0.38348734010463431 2.1952134306873168 0.13206816784650469 176 116 66 1.1055497080557481 45 1482 49 1644 51 1304 30 1308 32 1599 16 1563 50 1497 29 1505 44 703 31 1453 3 1314 2 938 38 990
4192 0.35272577999615212 1.5078296681486925 -0.0081255514810809875 184 125 76 1.6007367834894322 45 1592 34 1108 41 1058 37 1147 40 1127 42 1519 48 1081 45 1172 53 1149 20 1124 47 57 43 44 37 1146 40 1126 42 1146 49 28 49 1497 28 41
24945 0.30171671784285714 2.1970980926508212 0.10618622769535033 130 108 89 0.54627763492970727 131 640 150 524 128 956
24747 0.32539504844114736 1.9472754533817278 0.45875970186630971 149 105 70 0.64226881862284746 132 1333 145 1629 126 1296
14474 0.35208121053057911 2.1036384304235072 0.61973495529878875 159 213 208 2.0851071274615025 55 318 73 370 75 370 86 387 102 368 84 399 100 354 61 375 90 375 93 322 104 453 99 367 111 371 108 360 101 352 141 346 103 178
19660 0.21447265231906856 2.6642593342966592 0.23104330681138732 176 249 245 1.0799794345703935 104 272 105 418 103 319
19659 0.53535024740612769 2.2352167872297857 0.4996689991238083 177 195 192 1.9054437928387244 104 258 105 605 125 436 138 571 148 436 113 351 138 382
19656 0.3393304749219232 2.0987657310513734 0.56469585838028935 112 129 121 0.21506147629923661 105 398 125 419 138 362 136 358
19654 0.14939456514183386 2.1469315865399747 0.51381667113350471 202 254 251 0.21986423104191138 105 389 125 410 138 560 147 394 143 340 140 544 134 342 112 359
19652 0.57803076719404767 2.2784972146342364 0.38965703176853556 106 186 183 0.83848010596480671 105 378 125 401 138 555 136 536 147 646 143 654 148 414 148 880 140 692 134 328 137 609 135 424 108 576 112 527 133 489
19646 0.60028594710295047 2.2945067446668594 0.33702212671871151 86 115 111 0.89225061140786455 105 360 125 378 136 328 147 542 140 531 137 597
24723 0.35665264132149832 2.0888704091095733 0.53968607157248483 152 173 166 1.380183246818548 131 1737 126 1180 128 1271 146 1272 149 1372
24930 0.21725908986936726 2.0572572948219343 0.056961111354614513 99 41 4 0.46755850204875976 131 503 128 893 146 534 149 468 110 386 130 523 124 496
4177 0.41042385509859303 1.9467447264265694 0.094610559083843707 207 124 81 0.73363471906616895 45 2040 52 2009 34 1995 41 1945 53 2031 12 1980 51 1849 20 2030 47 2087 43 1965 37 1977 39 1988 40 1910 42 1939 48 1943 20 2087 47 2152 39 2039 43 2027 49 1892 30 1800 28 1632 32 2152 16 2148 50 2104 29 2206 44 2044 46 2053 7 1827 31 1971 31 2054 3 1887 2 1576 38 1536
14450 0.22672533315429025 1.7996474346348046 0.38768888310992489 71 0 0 0.11211215041575226 55 185 96 500 85 522 70 512
19636 0.40242363783077828 1.9918688513418474 0.44276876814808153 252 186 103 0.55717048255195145 105 328 125 340 136 296 147 322 134 286 117 369 135 360 121 391 119 370 142 355 141 267
24722 0.33993211693287334 2.3152405751612908 0.11125801646917205 126 128 112 0.69976123136350898 131 1828 150 1677 126 1177 128 1434 123 961 145 1290
19635 0.3996133249203736 1.999047818216757 0.43721678784151818 252 186 103 0.11589635746246311 105 327 125 339 136 295 147 321 134 285 138 306 141 268
19623 0.57434893676797527 2.0171660954956567 0.2346541800369682 93 2 3 0.99522115774187081 105 279 125 286 113 512 118 219 133 223
24698 0.47567549111180923 1.8173418924650082 0.26164703814205603 119 58 40 0.12973358478937277 131 1695 150 1534 126 1040
4152 0.56201301940264858 2.168306133078171 0.20715178168571932 41 42 45 1.4194143798781429 45 2118 48 2015 30 1933 29 2025 50 1931 7 1748 31 1728 3 756 2 937
14425 0.12903137180989463 2.2286214601874028 0.2173419315748113 48 47 51 1.3182177953217529 78 807 55 767 73 818 86 800
19611 0.4812199464284761 1.8635651228828771 0.19863445430727444 61 7 4 0.87431420866654486 105 199 125 209 138 482 136 166 147 183 134 159
24697 0.46154165067666325 1.9106037244640055 0.12753950927132876 87 12 16 1.1011701465712043 145 990 126 1039 124 710
24904 0.40243796675948101 1.4944482215366786 0.032955961605126774 200 144 90 0.15513857974843481 150 850 128 707
4151 0.59861457744653579 2.0426649312241603 0.13867791447556907 98 7 31 1.3997560079984019 40 2065 48 1956 28 1795 32 2238 16 2231 29 2293 44 2115 3 1965
19610 0.393611262485002 1.6204373004343251 0.39391044445195128 163 98 62 1.5316649353159426 108 126 125 203 112 159 134 160 141 149
19605 0.43843036716493178 1.6901235180638186 0.31340547128418406 133 72 41 2.0551906105828857 108 417 125 193 115 403 140 145 133 417 141 143 112 463
24691 0.43681264719483004 1.5569618086301014 0.073681394889696508 255 239 225 1.1613834226607995 150 1276 126 997 146 1426 149 850
14418 0.24024888712824316 2.1411519341896277 0.48335692317999984 77 83 80 0.96472009474471254 78 682 55 641 88 651 74 289 82 649 75 605 86 555
19604 0.47488065267004448 1.6865833286379388 0.31679137656388134 177 110 75 0.75747042119799368 109 128 125 191 147 172 143 146 134 140 141 141 116 122
24685 0.67959808872460892 2.194431834450373 0.29181253664187601 107 142 136 1.9169772100774511 122 496 128 1307
14412 0.2662952192727237 2.1689255026731984 0.487056278789749 239 255 246 1.6690094260914849 88 768 78 724 55 675 63 731 83 644 79 657 66 700 74 681 82 710 88 709 73 759 75 702 86 764
19598 0.4789980392938889 1.6666271037905949 0.30000989702455078 167 103 67 1.3315196383582859 105 177 125 170 138 134 147 155 143 131 148 162 140 457 113 92 118 115 137 162 120 208 138 129 112 459
24673 0.24859266469771349 2.1826435397385828 0.064894724214873259 155 144 134 1.7772018546409543 131 1247 150 482 126 894 128 934
14400 0.033191215509452837 2.0475474452062352 0.086689969987981563 189 171 153 1.6908269699962684 68 265 83 515 63 267 55 201 65 313 74 615 88 235 100 201 82 491
19586 0.49460443618895877 1.6488822224997699 0.25522557201102347 169 110 80 0.67596426248455455 105 467 125 136 133 404 139 73
24667 0.48478925023552993 1.6116789065334234 0.20769979717158932 139 90 71 0.32997452796525439 132 650 126 843 110 1178
19580 0.49717445723029152 1.6325892390370054 0.24134140397975756 140 83 53 0.71299726139191566 105 112 125 122 138 448 147 107 143 84 148 534 113 434 118 70 137 650 144 516 112 76
24665 0.47946060051556677 1.5113937068922809 0.2828730659944812 165 102 69 0.63079468367926717 123 1064 132 628 126 834 145 169
19578 0.52284020729185166 1.7003076006523694 0.18472213510846888 148 93 73 0.63603551890348742 105 114 125 118 147 109 143 86 148 104 140 84
19565 0.19616563139646817 1.6453380304288352 0.17273956907345087 223 136 67 1.1299526298731788 91 68 125 91 87 373 138 63 147 76 143 61 140 67 134 62 112 430
19549 0.45094703206628128 1.5407777184432643 0.1258739870475736 143 100 83 1.4186054186095325 105 38 125 26 136 30 136 394 143 393 140 399 135 650 120 794 106 40 119 792 107 835 127 970 123 1222 145 1529 132 1191 150 1707 126 1115 124 1081
19548 0.21186901736953126 1.2699700943287444 0.25697426121623557 192 180 158 1.88418813356346 105 20 125 13 147 9
19546 0.41464838361653894 1.5012584425825533 0.013716233580827714 201 189 180 2.0225300368512 99 4 111 9 109 18 140 11 137 8 148 11 138 7 104 300
24623 0.53798451205033249 1.6784467777428982 0.22027500306163966 133 68 40 0.30261804693429412 132 953 150 307 126 612 123 876
19536 0.62335248517779507 2.3188848218299869 0.33868379921584518 168 171 170 1.4503273186097008 139 635 105 788 138 791 143 713 125 781 133 629
24622 0.49163228993730057 1.6460785110605651 0.28447080159516147 123 69 41 0.64875379146632772 123 874 126 610 145 297
14349 0.044996364790575533 1.9590124147826582 0.26026079111238531 140 85 44 1.365677352542211 78 225 55 566 100 224
19535 0.45830514543143264 1.5588421424598875 0.17907570762482675 137 85 61 0.47882558606525949 109 621 105 760 138 752 136 715 147 721 143 685 140 719 134 640 135 880 148 884 112 663 141 636 133 613 116 624
24620 0.32589855724599665 1.8185092157892542 -0.003756023876315611 121 59 64 0.52853252952720009 131 1120 150 956 126 572 128 195 146 322 149 262 110 242
14347 0.2263130460363475 1.9087043615473231 0.30952279059487858 80 3 6 1.3276519990124551 78 201 96 606 55 561
19533 0.30082968354109785 2.0767150986216922 0.53696416841031236 196 242 230 1.4285027403629262 93 567 98 614 105 755 148 875 120 831 141 648
19528 0.36895511169627671 2.1042735617539994 0.59569677589105863 116 157 149 1.7939530439033275 72 313 105 684 101 341 115 318 138 713 143 362 148 838 137 768 140 364 144 804 120 845 141 563 133 502
19516 0.088425352360266066 2.0068906635102963 0.11447368965619342 0 0 0 0.62991429730065041 93 406 109 418
19514 0.23097355776807837 1.6076213376113744 0.22947530033821831 211 137 74 1.8920364950014572 109 391 105 456 136 415 118 387 148 67 112 72 133 65 116 395
19513 0.46651578086060524 1.5342837025929423 0.28487206933598902 153 77 41 0.90460240177419327 139 384 105 455 125 477 116 386
24592 0.28011283125977043 2.1998051920380703 0.10586495685064864 152 121 100 0.27048536839774995 131 631 150 519 126 318 128 482 149 562 124 270
19505 0.47334798825701102 2.1460615388138238 0.484870385868656 187 218 203 0.13609033482813951 109 314 105 380 136 341 148 405
19485 0.32617221991860512 1.6357060214522694 0.41542069485193184 159 99 67 0.47583089874393286 99 177 101 174 108 166 111 175 115 159 105 223 76 152 138 195 136 472 143 181 134 187 137 517 135 692 141 171 116 176
19484 0.17250849461178946 1.601014217805848 0.41160030015165672 184 138 99 0.094399556364991907 104 122 105 198
19483 0.32326845155631839 1.592527398107255 0.39840393316869605 143 96 54 1.4941135117348183 101 133 111 141 105 191 99 445 147 482 148 562 140 151 137 171 135 549 119 195 129 210 133 132
24564 0.40168952671418084 1.8357875708523439 0.011120151288528427 96 37 40 0.25615358486689499 132 173 145 250 126 170
14291 0.038643711325681084 1.7862077699245495 0.31035760799988416 0 0 0 1.0424029382359923 63 245 66 547 79 219
19477 0.42242597092218698 1.5199827912630199 0.30881182828632864 125 75 27 1.013860476948953 105 97 138 72 105 89 140 71 113 423 137 465 129 132 121 585 106 544 142 554
19476 0.40811437645781867 1.5039743089043116 0.32411896013439567 171 114 47 1.6546666024245882 109 74 105 96 138 76 134 71 140 79 113 36 140 74 144 98 144 105 120 113 129 570 106 117 142 99 107 566 135 99 122 605 123 159 131 170 145 158 110 126 112 64 147 79 116 64 116 66
19473 0.50583739185753207 1.6417746976980765 0.16969995616270395 184 121 90 0.77626349367222136 109 58 105 70 125 77 138 53 136 406 147 56 148 509 140 408 134 44 113 606 118 590 144 670 135 663 120 701 127 984 112 39 141 53 133 38 116 47
24557 0.23896493446603562 1.8408724474554292 -0.0054277065655765518 173 114 110 2.0562748881400554 131 236 126 122 150 182
19470 0.52012248426265528 1.6842365574232243 0.083187604604204018 100 69 66 1.415337068172158 109 51 105 55 136 46 76 18 140 42 133 24 116 37
19465 0.47082164749150845 0.97655051002545701 0.41332515989666996 187 171 143 0.69211038735562713 109 6 136 1
19464 0.23464952649449575 2.0625296397652817 0.49663299630237384 225 143 61 0.98344759793653669 139 673 109 708 105 815 136 774 147 781 112 721 141 687 133 674
19463 0.39619870755816566 1.4277806188165612 0.54714861018963612 176 108 73 2.7071203787401048 91 508 109 405
19457 0.22297055009208974 1.6320982501281833 0.41257442040282932 104 56 29 1.2964729138202578 99 467 101 432 109 416 95 719 96 723 102 719 85 803 81 708 61 683 87 660 90 707 95 498 96 600 70 487 102 138 100 136 85 704 81 457 92 467 61 150 87 150 94 134 94 652 80 145 91 167 75 143 76 167 93 151 111 180 108 172 115 167 139 159 98 175 136 469 143 569 140 474 136 589 147 611 112 483 133 170 141 413 103 246
4351 0.027193462505421474 1.5060729699691597 0.16556913982978638 193 184 179 1.3905390105258097 43 66 30 55 47 85
25104 0.50267359995365202 1.6340118447042729 0.22881095627487902 165 113 92 0.17604182587575581 128 224 146 304 149 248
25103 0.33970835490473528 1.7904993145766321 0.015038542749301298 98 36 40 0.47741924317227374 128 807 110 1402 130 1663
4350 0.30082696591154767 1.4658394907290917 0.025523580353840173 163 102 55 2.1895593842955914 53 1141 30 23 46 19
14623 0.29410966414934714 1.6531893360111183 0.18182903341308818 205 145 101 1.7224046716004395 65 59 75 417 86 52 73 44 102 421 100 46
25101 0.49462868221654893 1.5932028843272696 0.23845743082609547 156 94 69 1.7098351088456305 132 927 146 275 130 240
4348 0.06430859247040234 1.5977751775960483 0.11273726844754971 191 122 65 2.3019744229668579 39 150 43 152 49 151
25100 0.43754562940089392 1.6381207622801834 0.036668608862791142 58 27 22 0.38898510061650793 131 157 146 213 110 146
4347 0.10763442869947504 2.26874284042671 0.1995379224041226 130 132 122 1.6995374293130316 34 1769 37 1492 52 1720 40 1440 49 902 12 1442 53 1742 20 1468 43 1663 30 1584 29 893 31 1472 3 1579
14620 0.35680435170597774 2.106246984397079 0.62586812759765331 56 101 96 0.6460242237163033 73 557 75 369 102 365 102 629
25099 0.46789569669482517 1.5260409625855971 0.18476228234416109 134 86 57 1.361409069316774 128 1137 146 181 130 146
4346 0.37563583390301009 2.2964650310035317 0.16297593013128739 191 212 196 2.8493375103344811 34 1521 53 1009 47 1538 12 1461 39 986 48 1667 52 1409 37 1514 39 1459 40 979 48 952 52 1426
4139 0.10263174415141084 2.2724062837814873 0.19402510897016356 0 0 0 1.8900819643504956 37 1918 53 1743 51 1610
24892 0.35769777959103777 2.1486330894617502 0.62436666708187483 143 164 165 0.20144030798661977 126 438 128 608
4345 0.42380432130685719 2.1721810668711239 0.083633709980880835 183 136 80 1.5973262672137178 45 1471 52 1694 34 1745 53 1456 12 1399 51 1293 20 1435 47 1475 37 1740 39 1398 42 1642 48 1642 45 884 12 1400 49 784 30 1299
14618 0.048045305081180711 2.2642995119347957 0.31373471069994618 194 254 254 1.2629969862516512 73 368 75 362 86 560 102 345 84 365 95 552 96 558 85 588 70 568 81 533 92 529 61 518 87 297 90 521 94 460 62 299 80 264 91 464 76 477
4138 0.51478626922684212 2.2615967166118933 0.22254013559162469 103 123 121 0.48744310298664723 37 1914 40 1693 52 1924 48 1818 34 1487 38 1473
24891 0.45191969451553887 2.1420811482839759 0.50186577838117263 94 115 99 0.32999564406601783 126 430 150 702 128 602
4341 0.25801519887815005 1.9387722958739479 0.049557946570347941 157 81 57 2.088527694606928 45 1378 52 1227 34 1329 41 1642 12 1309 51 1535 20 1323 37 1328 40 1314 48 1267 49 490 45 584 52 482 34 1324 41 510 51 1152 20 1318 47 1365 43 1226 48 1261 30 1201 30 1506 28 337 29 1342 38 886 38 889 36 840 14 1002 8 1015 8 408 35 962 33 394 26 371 26 895 25 349
25093 0.39746178374087204 1.5147228030331321 0.11380505867694274 207 155 95 1.9520282665517874 126 813 146 129 149 839
4340 0.51850930377739224 2.1201198267704076 0.10445140380933947 61 23 32 1.1370332707164885 12 749 49 719 40 724 42 787 41 1342 44 630 16 821 32 845 50 820 31 793 3 710
4338 0.52468590091913914 2.179465184737901 0.16249235431462755 96 96 96 1.606046728241034 45 882 52 741 34 804 20 828 37 841 40 791 49 786 53 1457 51 688 28 566 32 918 16 898 29 839 44 694 46 825 7 788 31 856 3 761 2 479 38 979
25091 0.29879263244678728 1.5276168690687426 0.13110713486260231 223 168 111 1.2406505436319646 131 90 146 119 149 837
25089 0.24999376201744344 1.3949732876281673 0.26641320119809103 0 0 0 1.1330648791761944 128 693 131 39
4336 0.32059802518915015 2.2829992965521044 0.12284291805998732 199 193 177 1.222640405929321 34 1924 41 1892 52 2049 53 1990 12 1829 51 1793 20 1982 45 1019 47 2031 43 1920 39 1862 40 1942 42 986 42 1808 49 1667 52 877 53 997 51 806 40 970 30 880 28 1555 44 1881 46 1894 7 1757 31 1750 3 1590 2 1383 36 587
14609 0.31478111002042958 2.0392432494162169 0.40435659113669853 155 92 31 0.5718828901600802 73 277 75 265 86 515
25086 0.18943321009210679 1.3890829730305578 0.22317259931149611 206 191 177 0.56934516755338449 145 1572 146 41
4333 0.40809741960670753 1.6825343891448106 0.0034496552023834666 198 128 116 2.1867434361101319 39 1564 48 1721 49 1735 45 1952 47 1982 43 1851 42 1720 32 2130 29 2179 2 1552
25082 0.21532880085242209 1.4293912963274553 -0.071145585444532533 205 194 189 1.2653819140001308 128 668 146 5 149 794 124 1
4329 0.42002989252016193 1.8080419682363569 0.014194117478718109 180 126 115 1.7646316917569038 53 1828 51 1700 43 1551 39 1789 49 1762 47 411 49 353 20 1269 30 1169
25081 0.51814254983320363 1.9194180086533175 0.26176103736256812 105 55 20 0.25772369523620414 131 1891 150 1738 128 1600
4328 0.076110514916211125 1.8676603515408281 0.077063146178768471 134 74 29 1.7247392108325281 41 1941 52 2005 53 1952 47 1873 43 1875 39 1908 42 1869 49 1768 45 474 52 1195 34 1298 41 418 53 456 12 1267 45 1682 53 1316 51 377 51 1523 20 448 20 452 47 447 43 444 37 1299 39 453 39 1284 40 412 42 455 48 434 48 1238 49 409 30 1189 30 1688 28 280 32 1935 16 450 16 2045 50 465 29 1312 44 1554 46 416 7 1535 2 771 2 1103 2 1458 38 860 36 794 36 1434 8 1515 14 1522 35 1481 9 479 6 212
14601 0.48942191574112393 1.9586954980086264 0.37936300926101052 137 105 84 0.59549431141531917 73 495 75 209 86 218
24874 0.54857410614006996 2.0736967941908651 0.17828857337203302 81 1 21 0.46511024206427298 131 711 128 525 149 597
25080 0.42374952260837723 2.1896014452002932 0.36819163196547583 188 193 189 2.1417986527257424 123 1292 128 1545 122 1157 132 1294
4327 0.34403033853931503 1.8482540302881352 0.052763642010511862 99 29 30 1.9198619566475359 12 1886 39 1904 34 425 41 403 53 443 34 1990 52 2003 51 366 39 434 48 1881 49 1887 30 1794 29 2103
14600 0.41860632175800455 1.9636499071852422 0.32284362712248044 166 97 71 2.0846098739274188 88 177 92 211 90 218 94 176 92 482 70 638
4120 0.51037630266679479 2.2876387390605792 0.23151553915630804 105 115 106 0.1129704187763364 39 1698 48 1441
24873 0.61560894008583911 2.0526489696488399 0.11902467986580248 120 21 42 0.32483973689438367 150 1133 128 518 131 704
4326 0.31741403495280424 1.4124994064301044 -0.036342176180706849 185 160 136 1.6901762504508444 51 3 47 1135 43 2 20 4 47 3 49 1046 51 5 40 0 32 5 16 1 31 1 2 2 2 3 30 1
14599 0.02280839766751902 1.936591536463705 0.12442465798825701 192 125 59 0.49679034335966149 73 211 75 195 86 192
4119 0.4572703656174732 2.1596778598818931 0.15707006175104396 178 170 159 0.32380655053848501 40 770 48 1373 38 540
24872 0.29305950116248464 2.23553248738307 0.12001516177495732 129 121 106 0.4598791475651548 126 333 131 675 128 508 149 591 110 974 130 668 124 273
25078 0.22891847548187666 1.5566447284183522 0.154882696880591 0 0 0 2.6410304033960692 132 39 150 75
4325 0.5552498824139156 2.2269563348408208 0.16006130760428544 29 32 34 1.4435503379684074 51 1317 52 1367 12 2001 20 2050 47 2113 43 1992 49 1395 28 1752 29 2152 16 1831 31 1899 3 1731 2 1196
14598 0.27054137013244001 1.7800518607471407 0.39295867618815572 133 81 60 1.7213782019499007 73 203 75 193 92 588
25075 0.5029021152165789 2.1381698861292517 0.27827647987822363 186 168 168 0.23070604874946929 131 1339 128 557 150 1420
4322 0.34164714199030921 2.0802176297096735 0.069474839389308443 164 87 29 0.64744452174612022 45 1724 52 1664 51 1570 39 1658 42 1632 48 1626 49 1622 40 659 30 1544 2 1357
14595 0.3314324245680646 1.7985779552770171 0.39805645012120011 84 9 13 0.79761038518660654 73 194 75 184 86 188 100 180 81 212
25072 0.41533515601399551 1.9790714007914287 0.096828155977594976 159 76 47 1.1083800478320018 150 445 128 424
4319 0.39306695884420523 2.3570636508417619 0.12105956179833208 159 217 215 0.96331531572218021 12 1053 47 1080 53 1077 49 1460 16 1127 3 945
4112 0.37280870889898782 2.3941073182564789 0.12857800856391 86 94 64 0.75432230890219432 37 1092 40 1076 48 1035 30 999 7 1426 38 696 36 1002
24865 0.54065332068124572 1.9306491548652482 0.23090298890303668 245 199 155 0.81723645307626713 123 476 145 526 128 466
25071 0.49524794825813684 1.8165194812007988 0.29064979971795424 246 189 199 0.15318000155494049 127 367 130 463
4318 0.028924493016881641 1.7373007319675613 0.053179764250607456 112 64 52 1.2386192251480681 12 312 51 1061 39 307 42 300 49 284 12 317 34 313 40 284 41 282 42 302 48 302
14591 0.19376342942068961 1.7972142501031199 0.29112902170051352 111 60 29 1.3492090994848522 73 482 70 493 95 657 96 603 81 597 115 506
4111 0.80615651808022259 2.3795472653655421 0.27171501636512391 175 177 172 1.6291520851350358 41 981 45 1120 48 1017 34 1026 37 1071 41 987 52 941 53 1089 12 1068 20 1072 47 1112 30 977 32 1196 32 1199 28 742 16 1645 50 1581 46 1081 7 1431 31 1108 3 983
24864 0.42282354488035528 2.0785199663884453 0.092505719552276544 184 128 77 0.36936287780255311 126 297 132 353 128 461
25070 0.35292226943718591 1.8927453941946433 0.28887673653578344 92 8 23 1.7325954180310494 150 1373 128 417 131 1529
4317 0.4672624529163843 2.2883532235403456 0.18563372840839876 202 222 211 0.47151295405552207 45 1028 52 1401 34 942 41 1445 53 1000 20 974 47 1007 43 933 37 1504 39 982 40 964 42 992 48 939 49 1430 34 941 41 1444 53 999 40 963 32 1075 29 986 44 833 7 921 31 1013 2 982
25069 0.45737254134900646 1.7344507703338419 0.32887907637975378 112 66 40 0.15321055048733453 131 486 128 345
4316 0.23971465635146946 1.9423660656935613 0.050975007888810216 118 36 25 0.78434093708528585 45 597 52 490 34 549 41 517 53 557 12 537 47 578 43 536 39 571 42 568 39 577 48 536 48 539 49 1267 45 596 52 489 34 548 41 516 53 556 12 536 20 541 47 577 43 535 39 570 48 535 48 538 30 492 30 493 28 340 16 539 50 550 44 402 44 403 7 475 31 524 35 424 14 423 33 407 41 509
14589 0.049442634535531688 1.7437593029246996 0.23411032191514136 149 97 68 0.13873029686120217 73 155 75 149
4313 0.033972605730287209 1.7301898541543592 0.084924341529330385 125 62 41 1.9065089203834804 12 313 20 308 49 1191 45 1652 34 1659 53 1268 12 311 51 1486 20 1604 47 322 37 1638 39 1578 42 1573 48 1571 30 281 7 282 3 269 46 1222 7 1112 16 1331 2 718 32 331 3 272
25066 0.28247099298286871 1.49412788044006 0.16661320782123953 0 0 0 1.0555848001799488 123 771 127 39 145 816
25065 0.14399570552333041 1.5070992303984301 0.20648356649181168 184 114 55 2.8723018780575034 126 38 128 53
4312 0.057192301753088169 1.7315645999231852 0.05682016181902174 175 88 63 2.1759497129412697 45 1654 34 1235 41 276 37 310 37 1639 39 1235 48 1196 49 1188 41 1589 48 291 28 202 38 1145 51 240
14585 0.044610415423339475 1.7258347404182723 0.2129941618229492 154 105 72 0.28449938195591862 73 462 75 130
25064 0.50788937702299675 1.9041712830064923 0.22305843412521287 147 112 93 1.9295557103317775 123 1317 145 1598 150 1823 131 1980 126 1289 105 234 129 311 121 658 106 626 107 865 127 382 122 907 132 1328 150 1379 131 1700 128 1228 124 509 117 817 133 180 125 248 146 563 149 1029
